# .PCD v0.7 - Point Cloud Data file format
VERSION 0.7
FIELDS x y z intensity
SIZE 4 4 4 4
TYPE F F F F
COUNT 1 1 1 1
WIDTH 1439
HEIGHT 1
VIEWPOINT 0 0 0 1 0 0 0
POINTS 1439
DATA ascii
10.221659 12.253057 1.8683416 15
-1.7610397 12.324171 1.8875949 3
10.098074 12.310385 1.8850683 8
13.988022 12.344373 1.8262596 10
7.4489641 12.453941 1.8936478 7
10.658957 12.418452 1.8755096 4
11.721352 12.414127 1.8964506 6
9.8534288 12.516964 1.8446531 12
12.963107 12.57975 1.8752339 2
-25.239956 12.630113 1.897094 6
7.6182265 12.634958 1.8768781 4
14.052266 12.692032 1.8901588 24
13.958986 12.728102 1.8235295 33
14.083136 12.745021 1.8853763 36
14.133866 12.738022 1.8188694 16.5
19.93475 12.78333 1.880216 17
20.167896 12.77238 1.8424724 52
7.8322015 12.830111 1.8122503 5
7.9174109 12.859062 1.8822125 14
19.945038 12.87032 1.8288246 15
20.000036 12.845104 1.8232293 11
8.8718758 12.955272 1.8002933 7
18.375065 12.986711 1.8860083 12
18.431276 12.931099 1.8420403 4
-1.9496047 13.045547 1.8202295 3.5
18.448503 13.057208 1.8007396 10
-2.0379715 13.114734 1.8877909 3
8.7692842 13.13955 1.8205417 13
9.3229504 13.180915 1.8850245 17
18.438448 13.136145 1.8247217 7
18.503922 13.149801 1.8826183 7
10.344525 13.246422 1.882651 2
10.57859 13.292822 1.8812493 9
17.366631 13.22441 1.8953077 2
19.906509 13.262291 1.8568119 35
5.8714762 13.356737 1.8009572 3
10.515599 13.369322 1.87637 15
10.606605 13.320086 1.837007 6
16.990223 13.353278 1.8273361 7
18.46085 13.347739 1.8273685 27
19.856697 13.3519 1.8240558 28.25
-39.313614 13.456133 1.8853281 59
-39.226894 13.49957 1.8563631 64
8.7667208 13.461998 1.8529587 3
12.213962 13.432587 1.878121 16.5
8.7305965 13.531682 1.8670781 2
10.455341 13.583728 1.8158152 3
10.567949 13.593925 1.8670832 4
11.785385 13.594044 1.8147135 4
18.9834 13.545259 1.8387643 11
-22.813122 13.604284 1.8098722 6
-2.0152097 13.645878 1.8051981 3
15.972604 13.626391 1.8272282 10
-2.0514088 13.7542 1.8525867 11
19.189079 13.798288 1.8352144 10
6.7116361 13.819605 1.8428013 2
14.69416 13.863108 1.8480308 6
16.89469 13.811572 1.821605 6
19.164738 13.897202 1.8159201 13
18.26545 13.922276 1.8247925 3
6.6765041 14.021508 1.8920382 9
16.372368 14.01587 1.8047864 2
-22.750692 14.11282 1.8499513 6
17.363205 14.140339 1.847737 5
-31.477737 14.252128 1.8568323 57
12.865978 14.258967 1.8590041 28
18.199987 14.23185 1.8827595 4
-31.525833 14.325121 1.8014503 47
-31.39146 14.343698 1.8210208 62
-30.760195 14.346581 1.8462727 47
-30.699303 14.397015 1.8872894 27
-14.238092 14.39145 1.8785236 2
12.957653 14.3022 1.850778 8
-30.772648 14.422917 1.8009058 37
-30.664885 14.454617 1.843387 53
-19.78693 14.455072 1.8214941 36.5
-14.388643 14.490042 1.8259685 27
18.22385 14.452991 1.842205 14.25
18.620884 14.454395 1.8334832 5
-30.719204 14.505602 1.8030998 12
-14.350195 14.555696 1.8689928 23.714285
-14.292517 14.507763 1.8893239 42
15.073074 14.567386 1.8218849 6
18.2318 14.528769 1.8420833 12.8
-30.697062 14.689138 1.8730609 54
6.5704041 14.782836 1.8005913 5
-2.1165299 14.800345 1.8330721 3
-2.1693556 14.919476 1.8647455 3
-30.781153 15.179968 1.8070925 2
-31.125027 15.225056 1.8243399 16
-31.001484 15.245366 1.8209742 16
-30.832615 15.251959 1.8275135 15
-30.772583 15.221894 1.8969296 35
-27.96373 15.243675 1.8690264 9
15.108049 15.2812 1.8881676 2
-30.994461 15.311755 1.8351588 4
-27.114908 15.304594 1.8831325 11
1.2587953 15.376804 1.8143685 5
2.1489418 15.374584 1.8511786 4
10.314366 15.314644 1.8027755 3
10.400747 15.322338 1.8138316 2
18.566406 15.334864 1.8525621 9
-2.3031373 15.421089 1.8901218 17
-2.2265444 15.464976 1.8215241 8
1.8518858 15.448691 1.8132517 5
2.1417849 15.42463 1.8988612 8
2.2044582 15.477073 1.8050822 9
2.3533804 15.437687 1.8590508 9.5
2.4096828 15.431833 1.895991 10
-22.974445 15.567492 1.8727899 19.5
-22.212627 15.595705 1.8252636 33
-22.190796 15.596626 1.8378547 45
1.9891753 15.598457 1.8362514 7
15.147166 15.57181 1.8290068 15
-22.22522 15.665237 1.8675331 59.666668
-22.19669 15.649002 1.8073443 49
-5.6586351 15.660851 1.8599219 59
15.076542 15.648359 1.8804201 4
17.059422 15.666863 1.8855538 9
-22.215488 15.735552 1.8135848 67
2.7897053 15.775939 1.8792807 38
2.8213234 15.757751 1.8775088 25
16.922853 15.715591 1.892472 22
2.131983 15.890526 1.8674017 13
2.348413 15.874974 1.8894684 15
2.8948715 15.864165 1.8781897 58
15.06345 15.859406 1.8469727 10
-27.225706 15.973459 1.8913143 10
1.1508527 15.9724 1.8844863 4
-26.777691 16.007103 1.8642218 6
-25.623648 16.019365 1.817978 11
15.018317 16.082466 1.8015927 19
-26.806295 16.145042 1.8737448 3
1.1389608 16.181629 1.8383896 13.5
15.061926 16.106785 1.8854127 21
-22.95768 16.254732 1.8639028 10
1.6163225 16.279768 1.823179 16
2.7451327 16.248804 1.8338751 17
10.255205 16.236359 1.8077514 2
-24.611992 16.379147 1.8756989 8
7.6891575 16.326801 1.8829647 52
-22.150785 16.433277 1.809032 17
-14.611258 16.496426 1.8332222 39
7.5314894 16.470284 1.8143225 30.5
19.659414 16.453815 1.8288443 5
-16.004314 16.587326 1.8967118 2
-15.999884 16.589333 1.8880601 2
-14.642673 16.551125 1.8608911 29.75
-13.772666 16.584229 1.8364462 33
7.5173502 16.574774 1.8276105 6
-28.115673 16.637146 1.8274122 23
-16.065552 16.67561 1.8898665 7
-13.782911 16.636307 1.8598056 52.5
7.5719643 16.672966 1.8538387 26
15.033619 16.608746 1.8510656 4
-23.148315 16.709852 1.8644309 12
-13.923549 16.748398 1.8990742 59
-13.792426 16.724792 1.8676742 60
-2.4590154 16.883804 1.8606577 3
2.6061854 16.823927 1.8153651 13
10.157743 16.848589 1.8542511 6.5
18.299107 16.899025 1.821725 14
-16.028664 16.970682 1.8691862 9
-13.835746 16.944929 1.8009592 60
-2.4489722 16.972715 1.8618319 13.5
14.865679 16.989943 1.8046064 2
14.962933 16.903393 1.8467922 19
-39.497646 17.038675 1.8178184 23
-27.603378 17.01123 1.8657471 19
-27.565533 17.023832 1.8682094 2
-16.068796 17.067474 1.8588268 4
-13.865074 17.084038 1.8485444 72
-19.036337 17.160633 1.8493308 20
-18.8064 17.157955 1.8956305 11
-14.706636 17.174358 1.8567512 51
-25.748182 17.2593 1.8787029 12
-18.800522 17.213814 1.8759702 8
-18.618904 17.217566 1.8948995 7
-14.72776 17.205177 1.8067566 61
10.09103 17.226639 1.8868268 3
14.867702 17.234287 1.8785255 4
18.268019 17.255985 1.8108027 5
18.942476 17.215591 1.807091 16
-17.930145 17.312595 1.888532 14
-17.731909 17.345182 1.8659229 6
-17.612808 17.325893 1.8179232 9
-17.470108 17.377216 1.8832359 5
-14.660494 17.31584 1.8963802 9
-14.347773 17.363611 1.870988 29
-14.046634 17.374245 1.8489354 32
-13.921865 17.393209 1.8652321 33
-13.880814 17.340103 1.8755063 55.5
-2.5503163 17.386761 1.81975 4
0.99461555 17.343769 1.8473018 8
14.831871 17.388874 1.8760737 4
17.881346 17.368565 1.8716232 9
17.950485 17.362143 1.8530358 10.25
18.18528 17.30838 1.8004526 7
-17.008699 17.450281 1.8862767 13
-16.615011 17.413439 1.855341 5
-14.117098 17.445875 1.8221521 4
-14.026886 17.402893 1.8405261 28
-2.4745741 17.443134 1.8235935 7.75
2.4516883 17.460932 1.8548362 12.5
18.140928 17.45932 1.8537891 5
-16.449913 17.564304 1.8849456 3
-16.263386 17.559601 1.8510307 6.5
-16.003675 17.517553 1.843406 14
-15.983498 17.532139 1.8703715 22
1.061347 17.523869 1.8149596 14
18.771133 17.525593 1.8867282 11
-15.553774 17.625572 1.8007348 13
-33.202305 17.737316 1.8146051 2
-13.561357 17.730183 1.8329313 30
-14.240859 17.891945 1.8701264 11
-13.865597 17.82526 1.8632787 14
-6.3484335 17.819139 1.8696029 59
12.575052 17.828209 1.8583201 11
14.786845 17.886253 1.8959816 2
-31.750277 17.920015 1.8214869 4
-12.750494 17.950878 1.8654294 8.5
-12.030774 17.968515 1.8663164 2
-13.564623 18.074926 1.8984294 8
-11.549994 18.079336 1.8833658 4
-10.153893 18.066658 1.8344719 5
14.768101 18.079895 1.8471293 24
18.153938 18.063442 1.815084 14
-30.346457 18.138325 1.8264422 2
-11.145506 18.144146 1.8458107 6.5
-11.081091 18.126558 1.8930475 21
14.799449 18.159235 1.8028171 24
18.171595 18.16539 1.8386859 12.5
-10.871572 18.204994 1.8046497 5
-9.8930492 18.296261 1.8673867 10
-7.7748728 18.297792 1.8459947 10.5
12.297379 18.232033 1.8562258 13
18.073809 18.251251 1.8333504 7
18.122026 18.290941 1.8906827 7.6666665
18.254084 18.278616 1.8266279 6.5
-10.135218 18.35457 1.8554363 13.5
-7.6871605 18.349602 1.802094 2
-6.4026289 18.378279 1.8066092 33
9.4669266 18.359463 1.884106 34
10.00712 18.30304 1.8710864 4
15.353872 18.375076 1.8576131 7
18.241814 18.30863 1.827651 5.5
19.09264 18.388964 1.8938721 15
-18.53331 18.440405 1.838735 5
-8.8547955 18.413506 1.8364421 4
-8.797121 18.430277 1.8328419 4
-8.2055149 18.486471 1.8940209 18
-7.8219576 18.459116 1.8909224 14
-6.2391186 18.419716 1.858308 10
18.965057 18.4515 1.8665581 4
19.068222 18.406857 1.8221295 4.5
19.491451 18.403299 1.8477582 40
-22.972002 18.563162 1.8039578 3
-7.7738509 18.590267 1.8036896 13
-5.7530017 18.504984 1.8017924 13
-5.6663303 18.594439 1.8695264 6
-23.013832 18.674612 1.8652139 11
-23.029106 18.705875 1.8520977 5.5
-7.8252077 18.713612 1.8598394 15.5
-2.7906837 18.7645 1.8233008 33
9.8433943 18.741493 1.8267093 6
-25.457315 18.816296 1.8869601 15
-6.5287523 18.875771 1.8632251 10
-5.398766 18.879507 1.85246 3
-5.2810779 18.882261 1.8815491 6
-2.8627923 18.840721 1.8595111 15
-8.4359226 18.988766 1.8983891 7
-4.0422916 18.961302 1.8749255 18
-2.7877216 18.955109 1.8058913 12
-4.6947546 19.02486 1.840064 6
-4.3298445 19.018282 1.8580914 7
-4.045372 19.036995 1.8768857 25
-3.8784351 19.096889 1.8328191 5
-3.0223875 19.076929 1.8683841 13
-1.8966885 19.008274 1.8952543 2
-1.4277716 19.092363 1.8469647 4
-24.266491 19.184599 1.8982279 5
-3.2160635 19.12965 1.8680909 3
14.606224 19.180994 1.8242288 8
-22.494909 19.226791 1.8660915 11
-5.8968506 19.208408 1.8188275 11
-3.5341368 19.251808 1.8941555 6.5
-3.118773 19.206688 1.8497124 7
-2.421319 19.232441 1.8716981 3
-2.3643637 19.200863 1.8173006 8
-2.0180702 19.275213 1.8887794 3
-22.399584 19.33869 1.856624 9
-20.65201 19.36269 1.814876 3
-4.7853174 19.38793 1.8097035 15
-2.0236254 19.304495 1.8601502 3
-1.7072725 19.306005 1.8815353 2
-1.6774931 19.32115 1.8265914 3
-1.5979385 19.326801 1.8332748 2
-0.65980864 19.31687 1.8537774 10
-23.258678 19.464161 1.8534967 12
-23.14773 19.460098 1.8572539 6.5
-6.5585861 19.433117 1.8488591 7
-1.0086179 19.447933 1.849156 6
-0.69892615 19.44223 1.8308223 22
2.3477292 19.495914 1.8387634 22.5
7.1715713 19.409351 1.8492006 11
14.273697 19.488686 1.8455467 2
-23.344803 19.515701 1.8990324 7
-23.162685 19.546516 1.8076794 7
-0.1375885 19.533352 1.8644114 6
2.2930608 19.502014 1.8649879 33
2.366631 19.508137 1.8118659 14
2.9604874 19.578419 1.8483523 14
9.2081604 19.573278 1.8139204 5
14.429615 19.552217 1.8965247 18
-20.95752 19.600616 1.894111 12
-20.390471 19.678658 1.8926364 4
-17.808262 19.669947 1.8092568 13
-0.75260019 19.683357 1.8865719 18.5
0.18976974 19.640129 1.8391842 8
0.72242928 19.692394 1.8585019 5
1.3943949 19.669529 1.8979076 6
1.4441762 19.675945 1.826026 7.5
2.4940634 19.613544 1.8978008 15
9.2025738 19.619446 1.8070006 4
9.7186346 19.677048 1.8204291 16
-19.137302 19.76329 1.8822541 13
-0.73019028 19.725689 1.897477 8
1.4548922 19.707153 1.8108618 5
9.0564938 19.706539 1.8124548 2
9.247221 19.71077 1.8063542 12
9.7653751 19.752659 1.8783456 2
10.163248 19.777449 1.8099252 4
2.0903049 19.842667 1.8486104 5
4.5600748 19.815329 1.8999127 8
4.6918135 19.844599 1.8033628 13
4.8491211 19.828722 1.8094369 11
10.295912 19.864067 1.8242218 4
10.345648 19.82695 1.8385028 5.25
19.335529 19.812897 1.8021712 54
-17.056831 19.90267 1.8530718 6
-15.534088 19.969912 1.8119097 3
2.5754585 19.932428 1.8998699 7
2.9660056 19.965523 1.8633089 5
3.082068 19.959816 1.8612843 4
4.6811724 19.903538 1.8127222 14
4.7792301 19.958961 1.8064088 21
4.8048239 19.955357 1.8888066 24
5.8502474 19.961086 1.8793972 12
9.7749462 19.954937 1.8747261 5
19.092329 19.960726 1.8590798 28
19.105616 19.966684 1.8867145 46
-17.615608 20.004345 1.8664011 11
-0.1038065 20.06212 1.8544061 11
3.1453547 20.092125 1.8655461 3
3.2639003 20.007458 1.836019 6
6.6904187 20.062025 1.8073055 17
6.7598534 20.0793 1.8111107 26.5
1.3176749 20.188293 1.8810656 6
2.2276869 20.157202 1.8576368 8
3.8564682 20.102116 1.8024925 5
3.9218044 20.153284 1.8716813 10
4.2206974 20.118015 1.8731169 9
7.0071373 20.127981 1.8961811 16
1.3455815 20.20232 1.8520856 10
2.5514555 20.263058 1.8323773 10
3.0747602 20.290396 1.8729486 5
3.2185583 20.296944 1.867319 6
5.0438662 20.262135 1.8594446 14.5
9.6956787 20.266151 1.8224263 3
13.104524 20.287539 1.8061348 10
-28.507559 20.398314 1.8877288 7
-15.417416 20.313095 1.8578713 5
-6.6044545 20.353184 1.8127844 17
3.3699799 20.328636 1.8418448 4
3.8819418 20.385326 1.8015884 3
13.070046 20.385983 1.8244026 30
13.115183 20.359489 1.8776699 44.5
13.343479 20.386507 1.8851408 50
13.660301 20.376892 1.8340665 29.666666
-12.740045 20.477787 1.8695297 4
-6.5621371 20.404509 1.839928 2
4.2455721 20.423374 1.8917272 4
4.3389082 20.44017 1.8558329 5
4.8095417 20.444063 1.8204498 3
5.5525045 20.417093 1.8711253 12
6.7020707 20.485834 1.8677344 21
6.8697557 20.472261 1.8968388 5
7.554038 20.469767 1.882139 17
7.9177904 20.488523 1.8471298 4
12.971304 20.437157 1.87775 7
13.655285 20.451355 1.8501443 58
19.078815 20.498844 1.8083987 51
4.9993644 20.56189 1.8699487 12
12.711248 20.522631 1.8953911 5
13.832453 20.51709 1.8319566 38
15.473468 20.590923 1.8777033 8
18.993404 20.542236 1.8174535 35
19.065258 20.522629 1.8451756 27
19.108404 20.502794 1.827786 58
8.0515423 20.61071 1.86745 3.5
8.4540272 20.67922 1.8829192 5
12.586798 20.697685 1.8003707 5
14.692693 20.68959 1.8515422 6.5
14.723745 20.673565 1.8369267 4
15.534949 20.602297 1.8294525 11
19.072807 20.642704 1.8406873 14
19.147366 20.628916 1.8808001 3
5.4773583 20.795218 1.8244312 13
5.5438204 20.79615 1.8782096 14.5
6.5210476 20.73377 1.8832285 5
6.7137723 20.741756 1.8521019 7
6.9458313 20.783251 1.8975507 6
8.9981833 20.731197 1.8402009 2
15.152552 20.75165 1.8876635 3
15.450442 20.746582 1.8991392 5
16.445702 20.758469 1.8572141 4
9.2801609 20.827219 1.8708036 12
9.4632435 20.809193 1.8892716 2
9.6393757 20.826221 1.8572428 3
10.066813 20.868231 1.898302 21
10.436942 20.862196 1.8385432 21
13.006227 20.882988 1.8678081 43
14.318668 20.804794 1.8713552 9
15.337298 20.85276 1.885893 17
15.446665 20.807697 1.856594 12
16.026207 20.867886 1.8807467 15
16.229069 20.887918 1.8987005 6
16.438683 20.805151 1.8447498 3
7.8792915 20.936827 1.830647 19
8.5207911 20.983435 1.8854129 6
10.173895 20.928679 1.8892906 5
13.00255 20.910576 1.8503735 8
13.188202 20.907543 1.8727946 38
13.993559 20.950676 1.8792419 15
14.032471 20.915695 1.885977 7
16.97665 20.995144 1.8519366 2
22.251696 20.932486 1.8582361 15
-9.4080477 21.035309 1.8786819 8
-6.6956043 21.002497 1.8132077 14
7.5117579 21.073519 1.8851931 9
9.3695402 21.09174 1.8166466 6
10.886477 21.009357 1.8239033 4
10.960213 21.069401 1.8711554 12
11.389938 21.065445 1.8827125 3
12.662842 21.028767 1.8644629 15
12.707036 21.039221 1.8061739 11
14.720772 21.064322 1.839058 17
15.293734 21.096432 1.8873396 6
15.435906 21.044096 1.8114361 3
17.287058 21.046989 1.8498095 4
-8.395134 21.115707 1.8651017 9
-7.1441126 21.172777 1.8435603 14
8.9154034 21.10861 1.8576843 9
9.6312265 21.148159 1.8664036 8
11.798897 21.148388 1.8825529 4
13.86212 21.142662 1.8633083 29
16.476921 21.180035 1.8424067 9
18.050289 21.187271 1.8887087 9
19.155197 21.138369 1.8228922 7
19.708231 21.168772 1.8015523 10
8.801837 21.20796 1.8421239 6
9.5509958 21.280066 1.8059355 12
9.6649208 21.270821 1.8398783 8
12.486862 21.230652 1.8331459 8
12.620932 21.294952 1.8524067 7
15.38987 21.275612 1.8485663 5
15.406658 21.271626 1.8957148 7
18.917141 21.201071 1.8574575 6
-20.563797 21.337395 1.8296061 6
-7.1364532 21.319786 1.8463974 4
-7.0728331 21.322233 1.8447584 2
10.903626 21.329979 1.8611525 16
12.20538 21.346476 1.8352702 15
12.830692 21.340498 1.8914464 29
13.549637 21.351051 1.8865805 15
16.408689 21.340374 1.8797352 2
19.17804 21.386299 1.8133758 5
-28.910131 21.406334 1.8115641 4
-28.845383 21.4118 1.86111 20
-28.19883 21.481096 1.8497412 15
-18.446199 21.443201 1.8826478 3
-14.484298 21.489063 1.8892537 25
11.895979 21.440676 1.8878604 5
12.179709 21.454056 1.8069469 13
18.414351 21.480043 1.856936 4
20.488007 21.488697 1.889197 6
11.540809 21.520975 1.8807068 7
12.034892 21.595148 1.8722806 9
12.924368 21.575161 1.8420184 9
-4.8295498 21.609554 1.8911477 11
-2.6097393 21.668526 1.8697782 4
12.601997 21.695538 1.87324 5
12.965781 21.676502 1.8793739 20.5
19.079943 21.637806 1.8488524 10
19.515728 21.617294 1.8527744 5
20.530725 21.659462 1.8503366 2
21.15307 21.650787 1.8097367 5
-3.404686 21.766731 1.868314 9
12.582377 21.701393 1.8098868 8
12.706909 21.721781 1.8508117 17
14.583076 21.76288 1.8843362 4
14.636938 21.768696 1.8985815 11
24.183067 21.722641 1.8632743 6
16.240891 21.841623 1.8354135 3
19.631546 21.838644 1.8606569 6
21.502014 21.87051 1.8500417 8
-28.750181 21.993254 1.8863666 17
-12.161616 21.991472 1.8942391 6
-0.20632267 21.965422 1.8122114 4
-0.08754921 21.993092 1.8312051 7
6.5280628 21.981836 1.8947405 2
17.186544 21.924608 1.8485746 5.5
-26.937384 22.043589 1.8887626 15
-11.194849 22.083061 1.8624429 8
-6.3045297 22.003695 1.8087702 84
6.4763136 22.037874 1.8681867 3
16.312073 22.040512 1.8612611 7
23.163921 22.011265 1.8851615 6
24.085415 22.096554 1.8829386 8
-28.434982 22.144531 1.8941371 10
-24.741846 22.157242 1.840114 10.5
-0.51110458 22.138468 1.8922042 11
-0.2309103 22.168663 1.854913 6
1.2698531 22.147171 1.8043703 11
23.237133 22.150196 1.8624928 7
23.740776 22.121437 1.861585 5
-12.546693 22.279774 1.8664844 2
0.57115459 22.291622 1.8774661 11
1.0464439 22.286545 1.873407 4
17.898401 22.208601 1.8919876 5
-40.215561 22.358635 1.8816168 40
-31.884039 22.39012 1.871435 2
1.5553446 22.341013 1.847456 9
1.9519587 22.393867 1.8835356 12
2.1222677 22.328476 1.8404974 14
18.999012 22.322464 1.879407 9
-26.400238 22.424543 1.8630776 17
-26.106197 22.452402 1.8684458 16
-23.896812 22.452637 1.8668308 12
2.8666124 22.416904 1.8799707 3
3.4609537 22.487776 1.8840072 15
19.544987 22.418682 1.8764862 11
19.835068 22.425743 1.869682 3
25.352413 22.480721 1.8695594 3
-40.419857 22.590244 1.8799824 59
-40.385338 22.536987 1.853809 28
-24.76837 22.509211 1.8489127 6
-23.893579 22.504932 1.8122063 20
3.0770187 22.517946 1.8814906 3
20.374971 22.500195 1.8526818 1
-40.450951 22.610546 1.8409867 57
4.5966487 22.652668 1.8058664 11
-6.902935 22.738224 1.8086996 10
4.4482169 22.701103 1.8639288 28
4.6707778 22.751915 1.878639 10
21.862459 22.700472 1.8683606 3
-32.409576 22.855291 1.8545246 7
-32.381889 22.861734 1.8483948 23.799999
-32.01609 22.878504 1.8588835 23
-24.812754 22.860664 1.8508028 11
-23.086393 22.883759 1.8412433 5
-22.583254 22.895775 1.8904361 12
-21.618822 22.811188 1.8802578 16
5.256916 22.891863 1.8798368 11
6.3764954 22.815777 1.8404347 2
9.3895779 22.838066 1.8403684 13.5
-31.841255 22.979254 1.8188723 42
-20.502104 22.908031 1.8033507 7
7.5760555 22.925348 1.8564298 5
22.842434 22.956301 1.8002247 12
-31.850761 23.054914 1.8552853 23
-22.050297 23.002209 1.8773444 7
-20.502209 23.087532 1.8089927 6
-18.160315 23.097731 1.8875821 26
-6.4137516 23.044186 1.8976784 22
-2.303792 23.019609 1.8571466 3
24.312574 23.0418 1.8360056 18
-21.44899 23.140043 1.8971292 12
-21.233307 23.136909 1.8944387 5
-18.528547 23.109079 1.8504684 7
-18.172016 23.11516 1.8370308 15
-3.2748337 23.116787 1.8290743 7
-2.3061981 23.139196 1.8573366 5
7.033865 23.149549 1.8842133 13
8.526226 23.156425 1.8215313 4
12.998312 23.197992 1.8474272 10
13.025829 23.188301 1.821556 20
25.164139 23.155237 1.8329024 5
-31.897182 23.295979 1.8106291 51
-20.731924 23.209595 1.8243906 17
-19.98489 23.261795 1.8737301 13
-4.043293 23.259289 1.8000828 2
8.0708275 23.285892 1.8510964 5
9.9430447 23.297634 1.8695368 2
13.027944 23.211174 1.8523426 10
26.839691 23.203455 1.8546183 3
27.2799 23.229189 1.8981431 10
-31.8913 23.305161 1.8123652 61
-20.620977 23.378757 1.8410856 3
-20.129089 23.325468 1.8704625 3
-19.330318 23.379301 1.8735543 5
-18.522377 23.389448 1.816047 14
-17.853462 23.340862 1.8013828 4
-17.095562 23.373583 1.8941019 12
-2.2926064 23.362329 1.868758 17
-0.04740715 23.386385 1.8991531 4
9.8426504 23.325148 1.8422325 2
25.480272 23.350685 1.8580327 3
-31.874252 23.47348 1.8118317 34
-18.836697 23.441166 1.8607522 17
-0.9471941 23.443148 1.8940065 2
9.5854301 23.468645 1.8478321 8
10.491894 23.405041 1.8998867 4
10.855516 23.413048 1.8876727 30
-31.912354 23.532162 1.8698229 32
-31.870792 23.520803 1.8527075 13.5
-15.48958 23.524933 1.8860545 5
-18.595791 23.669445 1.8400238 3
-15.837155 23.612755 1.8465956 15
-14.764598 23.682514 1.8212025 16
-0.07808876 23.631407 1.8740269 9
12.348272 23.621168 1.8055834 6
-16.840794 23.726994 1.862252 5
-15.626465 23.744064 1.8552923 5
-2.2079105 23.772816 1.8519938 18
11.624592 23.715416 1.8958961 15
11.963844 23.781425 1.8821467 10
13.189981 23.74192 1.8738124 4
-16.028744 23.878428 1.8442047 17
-13.478013 23.827465 1.8601229 8
-0.87624454 23.847456 1.8320087 15
3.4751773 23.828428 1.8870955 15
13.082865 23.870655 1.8802321 12
-23.979393 23.934866 1.8660448 7
-14.959039 23.924109 1.8225765 17
-13.21545 23.904276 1.8332523 9
-0.064835548 23.970877 1.8658246 5
2.1463451 23.925135 1.8134463 2
15.824073 23.911219 1.8646898 3
29.095528 23.982639 1.8140578 6
-24.079489 24.016804 1.8477643 37
-23.614571 24.01334 1.8455722 14
-23.53952 24.048351 1.8655729 57
-23.483887 24.072138 1.8520725 32.5
-15.624451 24.006516 1.8763498 4
15.922848 24.022211 1.8264961 13
-23.542137 24.160515 1.8692244 79
-23.470236 24.127838 1.8649597 39
-11.697736 24.109188 1.8994008 4
-7.753149 24.133926 1.8825516 17
3.4686546 24.165874 1.8718958 14
3.8313231 24.114826 1.8411027 5
14.924303 24.152498 1.8558881 5
15.672831 24.107044 1.81073 12
27.545559 24.186346 1.8735293 4
-24.131559 24.233273 1.8085353 4
12.881457 24.230045 1.8741202 29
12.911016 24.239887 1.8690035 17
17.300621 24.247276 1.869917 10
17.507811 24.215652 1.8118597 4
-2.2775488 24.370781 1.8697364 9
2.8113728 24.361448 1.8308728 3
5.2489753 24.304142 1.8541583 6
-10.362888 24.495142 1.8875637 2
-8.9884424 24.402956 1.8963474 17
-24.151222 24.537035 1.8407096 11
-23.597706 24.597544 1.8567055 43
-7.6568279 24.509415 1.8677201 7
8.2762766 24.574694 1.8153064 6
-23.557014 24.603886 1.8801683 29
-9.3266811 24.643539 1.8620123 2
-6.8274541 24.691698 1.8510852 5
-6.788682 24.698336 1.8966125 7
8.2731581 24.666124 1.8486533 9
10.478363 24.698866 1.8160838 15
-8.0203762 24.776825 1.8845562 7
-5.4407873 24.790712 1.8894436 12
10.431379 24.729797 1.80794 2
-5.4358521 24.88332 1.8129978 17
-4.9815817 24.852337 1.8906407 11
7.4115372 24.860783 1.8792375 12
-15.744906 24.972265 1.8359438 5
-7.5242672 24.9137 1.8022512 3
-6.9027619 24.939009 1.8620195 4
-4.2861156 24.924677 1.8292038 7
-3.5165906 24.93977 1.8701383 10
-38.604481 25.060732 1.8417242 22
-15.724094 25.065887 1.8579595 34.5
-5.7584896 25.09355 1.8839849 4
11.633565 25.093578 1.8686944 17
14.315749 25.070381 1.8949533 13
17.253674 25.037975 1.8969725 2
-15.278827 25.102463 1.8749962 34
-6.6991243 25.131634 1.847769 7
-2.7079697 25.19294 1.8100843 9
10.372305 25.152624 1.8178921 14
29.184189 25.146944 1.8214307 5
-3.4991779 25.243126 1.8227026 10
-2.4423828 25.272774 1.8279045 5
-1.7217665 25.294176 1.8227539 5
-15.198912 25.391804 1.8408909 66
6.1024652 25.307137 1.8374679 10
11.418002 25.357498 1.8883694 11
-15.232999 25.421158 1.8872278 51
-4.3819818 25.428757 1.8511891 4
-2.4136429 25.443485 1.8067462 25
-0.20253658 25.426176 1.8966246 4
11.765049 25.448915 1.8411711 5
-15.831694 25.590042 1.8752172 48.5
-2.0033064 25.578127 1.8894302 5
0.30696011 25.573698 1.8984888 15
0.41438866 25.580084 1.8840561 2
11.805232 25.503536 1.8927444 6
-15.825631 25.648434 1.8977038 7
-15.245873 25.671078 1.8300216 14.5
-2.2595797 25.629377 1.82469 3
-0.15070343 25.650757 1.8150009 3
0.78837919 25.697018 1.8945426 3
0.93970776 25.695593 1.8413029 5
1.0348339 25.644821 1.8176419 16
1.4997244 25.687092 1.8701866 5
1.0964384 25.731434 1.8490475 3
3.6793823 25.729542 1.8600976 5
28.694378 25.777611 1.8552922 15
-19.297926 25.817518 1.8643924 3
-0.45459604 25.812954 1.8928605 10
0.32380009 25.866077 1.8900158 10
3.6891975 25.813892 1.8442605 17
14.956653 25.892588 1.8312517 4
28.66206 25.872726 1.8035599 2
1.0151811 25.967186 1.8524461 2.5
1.3096504 25.941422 1.8873148 26
1.7183466 25.968674 1.8648361 27
2.9813013 25.938522 1.8091412 6
3.9830122 25.919678 1.8538101 3
4.0870872 25.912745 1.89379 3
28.707657 25.900249 1.8515918 21
29.432554 25.965948 1.8772465 4
29.534105 25.949789 1.8694074 5
-7.4068375 26.019831 1.8995522 2
-7.3854113 26.06303 1.8374951 13
1.6032095 26.039614 1.8585943 3
2.0304499 26.029533 1.8074768 28
-7.4186082 26.147707 1.868431 35.333332
-7.1355906 26.1387 1.8284177 15
-6.8492169 26.145208 1.8400464 14.5
2.0167913 26.100636 1.8433456 2
3.2079167 26.174849 1.8838745 7
5.2661972 26.197903 1.8928592 18
23.413586 26.189817 1.8959303 4
3.0637302 26.207129 1.8091463 3
3.3341579 26.26425 1.8758656 4
4.1395435 26.291553 1.8553032 31
-4.4077435 26.333448 1.8911084 16
3.6309929 26.388609 1.8389786 5
3.9158821 26.374563 1.8247135 12
29.890511 26.331553 1.8231257 2
-4.438715 26.428104 1.810951 29
4.5060682 26.409775 1.801183 4
5.1906776 26.48303 1.8965313 5
5.3209357 26.466732 1.8645967 31
5.5339975 26.478291 1.8908759 8
6.6393518 26.437817 1.8853824 6
7.21348 26.451118 1.8818908 10
8.0668535 26.471128 1.8140434 7
8.1108398 26.458345 1.8366823 6
8.8806295 26.481003 1.8466493 7
8.9890728 26.454672 1.8851204 8
-4.4715729 26.550924 1.8804307 48
-3.9250393 26.534754 1.8364028 31
-3.8865516 26.522051 1.8510914 4.5
3.9956913 26.515278 1.8490584 2
5.2660847 26.501385 1.8326281 3
5.4277096 26.509842 1.8422865 6
5.7333326 26.576893 1.8041997 5
5.8409872 26.588066 1.8991494 4
7.2568083 26.514856 1.8985115 16
-7.5162444 26.661392 1.8412598 37
-6.9434328 26.696615 1.8943102 39
-3.9151669 26.660757 1.8243061 30
-0.31827164 26.695271 1.8258729 14
6.1351786 26.617939 1.8367589 7
8.11022 26.60796 1.8642293 8
30.319523 26.635643 1.8866142 10
-7.4499912 26.719299 1.8788083 41
-6.9314671 26.740719 1.8406466 18
-0.16024303 26.736818 1.8082755 15
0.14110184 26.772291 1.8824147 16
6.644475 26.717525 1.8902117 4
6.9571648 26.719378 1.8643899 8
7.0298834 26.757961 1.8815671 10
7.2815552 26.799536 1.8325999 7
7.498034 26.786501 1.8606055 7
9.5178537 26.784588 1.8642174 9
-2.6060066 26.822128 1.861101 21
7.7072988 26.809916 1.8674619 12
-24.09787 26.928648 1.8674918 25
-4.5152359 26.939634 1.89536 49
8.0076942 26.999443 1.8258916 20
8.2247963 26.906479 1.844329 5
8.962904 26.974661 1.8940512 18
10.738029 26.971628 1.8871741 7
11.462034 26.993971 1.8340405 12
30.460575 26.92617 1.8818127 3
-4.562665 27.02808 1.8174598 23.5
-3.9528933 27.066717 1.8559393 35.333332
9.698844 27.096809 1.8306713 7
10.933033 27.020184 1.8890221 3
11.172814 27.019215 1.8745912 16
12.156034 27.061058 1.8105487 10
12.22869 27.036951 1.853706 3
14.553719 27.096006 1.8651643 3
25.33427 27.03293 1.8543756 21
-3.9462719 27.138487 1.8276706 16
8.8074055 27.143841 1.8895804 9
9.8467293 27.135639 1.8256299 11
14.547501 27.193243 1.8854357 12
-3.7886448 27.215656 1.8449029 20
10.892613 27.255833 1.8854505 6
14.587738 27.215811 1.8588837 5
-3.0507431 27.33786 1.8019226 14
11.502682 27.313034 1.8245264 6
13.24545 27.306728 1.8475153 8
-2.6679382 27.427586 1.8963937 8
3.8943954 27.453842 1.8611697 5
3.917717 27.478926 1.8651794 4
12.17185 27.439516 1.8467063 2
12.454985 27.445475 1.8502961 4
-17.001368 27.577036 1.8778393 13
-16.975573 27.559486 1.8335892 14.25
-8.2603416 27.591774 1.8922718 10
3.8281755 27.513058 1.8129839 28
4.3567448 27.595413 1.8487768 21
4.5454807 27.597712 1.8671232 59
15.855601 27.542084 1.8645195 5
31.326633 27.551914 1.8955591 14
3.8523877 27.657557 1.8542776 46
4.298769 27.664362 1.8866014 21
4.380126 27.664801 1.8330922 55
4.4376969 27.636194 1.8393595 21.799999
30.32209 27.662157 1.8818758 12
31.400166 27.656523 1.8513762 3
4.4651475 27.759209 1.8658992 12
7.9844799 27.71191 1.8457575 5
8.2763224 27.85664 1.8679577 5
9.6754417 27.864126 1.8834575 5
1.5078306 27.949249 1.8188161 13
14.515627 27.965897 1.8870945 21
3.7974486 28.030987 1.8857777 48
12.696984 28.069529 1.8487483 4
15.757284 28.046787 1.8808253 2
29.382362 28.038771 1.8889557 2
31.716145 28.005768 1.8506097 2
3.7819076 28.12701 1.8007417 41
4.3520145 28.185616 1.8454416 18.5
4.4525476 28.136459 1.8625104 33.5
4.3446813 28.253891 1.8602924 24
4.4022517 28.230423 1.8762438 45
24.959423 28.237209 1.8073089 17
5.1487489 28.375803 1.8314784 9
9.4830065 28.332436 1.8786376 3
22.173664 28.492338 1.8769997 7
12.117229 28.548891 1.818756 2
12.696438 28.591103 1.8240169 25
12.736451 28.564499 1.8349491 25.666666
13.795873 28.557955 1.8571012 17
18.159763 28.586311 1.8658127 28.666666
18.241615 28.571754 1.8265591 7
11.834753 28.676056 1.8583409 44
11.975002 28.624971 1.8684511 18.5
12.006578 28.686333 1.8376193 36
18.167383 28.636122 1.8378453 29
11.832356 28.720802 1.871364 14
12.327518 28.75197 1.8834679 69
12.441156 28.726883 1.8725379 47.5
20.167477 28.780287 1.8125963 9
20.333298 28.775116 1.810366 9
32.257 28.70759 1.8575277 4
18.175968 28.829241 1.8384967 39
20.929655 28.830585 1.8516419 4
-7.3383408 28.965185 1.8628117 23
20.993357 28.930214 1.8282201 4
11.900876 29.099823 1.8182775 13
12.032785 29.028048 1.8194818 15
33.437386 29.142586 1.8293685 14
9.4814968 29.277391 1.8821396 4
11.882502 29.206196 1.8937119 28
12.480038 29.281059 1.830142 26
12.559681 29.280418 1.8396444 7
18.070192 29.374451 1.8725317 51
9.3337727 29.491249 1.8803319 3
-3.3018246 29.648849 1.8058497 12
23.155167 29.69409 1.8315014 9
25.742849 29.617676 1.813465 5
9.4279118 29.775412 1.8671894 15
22.971724 29.735315 1.8124397 7
23.100796 29.750078 1.8867306 13
23.345165 29.75782 1.8073003 20
33.224815 29.787239 1.8290743 6
17.798771 29.85211 1.8877488 17
23.44891 29.837666 1.8965148 20.5
17.677805 30.008682 1.8848147 35
17.700338 30.020012 1.8666782 30
23.781654 30.157507 1.8639947 12
23.815559 30.172707 1.83483 12
33.617771 30.140373 1.8049858 7
24.241253 30.541096 1.8137337 13
24.333487 30.563889 1.8625381 17.5
33.425777 30.536438 1.8725407 8
33.840008 30.622124 1.8219762 6
34.053226 30.867279 1.8859333 5
16.473965 31.019981 1.8377934 5
33.28384 31.3262 1.8758748 10
17.425556 31.485386 1.8806107 17
12.554663 31.561329 1.816288 39
17.363579 31.5429 1.8316401 6
17.454739 31.500557 1.8439417 11
17.651522 31.631474 1.822059 12
34.648506 31.617748 1.8518034 3
17.693363 31.816862 1.8722353 8
15.646461 32.056252 1.8246157 55
16.434755 32.120556 1.8724592 8
17.660973 32.323254 1.8453321 41
36.581635 33.394127 1.8690635 11
36.681561 34.078648 1.8944827 4
37.047935 34.494671 1.8185209 3
37.630356 35.22839 1.8343657 5
38.417137 36.174084 1.8621203 8
37.563927 36.713436 1.892307 13
46.109032 50.048264 1.8314501 21
46.030788 50.120949 1.8396351 24
-2.2776499 -30.133781 1.9667101 10
10.353012 -26.053553 1.9153591 39
12.80859 -25.479469 1.988426 8
13.821257 -25.301258 1.9443933 11
15.81735 -24.59358 1.9123186 14
5.9729071 -23.729282 1.9965098 3
15.716784 -23.523867 1.9078867 31
1.947999 -22.955753 1.9556196 5
2.0382853 -22.971859 1.9126133 10
5.8208747 -22.813995 1.9536175 4
2.1222074 -22.797882 1.9297682 53
15.516886 -22.71406 1.9053596 5
5.843174 -22.627703 1.9965904 3
10.29163 -22.089817 1.9753238 8.5
15.501011 -21.932737 1.9267541 42
10.425714 -21.856754 1.9970905 8
15.418743 -21.850296 1.9464068 3
10.297252 -21.749157 1.9260298 31
10.386413 -21.767008 1.9949379 58
10.404793 -21.737797 1.9880451 50
10.751463 -21.733795 1.969923 60
10.890396 -21.684479 1.9955451 49
10.923649 -21.631701 1.9615105 7
5.6567221 -21.554659 1.9451126 2
5.5084219 -19.704081 1.9599482 2
-1.6825209 -18.812605 1.9356347 14
-24.231632 -17.95277 1.9067818 47
-24.154848 -17.972872 1.9621583 31
14.887496 -17.802996 1.9214602 15
14.840886 -17.721445 1.9634943 14
-17.979771 -17.171005 1.9524357 49
-18.936127 -16.920204 1.9034293 51
-18.736118 -16.971163 1.9564153 32.25
-18.613024 -16.960876 1.9666053 65
-18.3629 -16.908497 1.9301864 65
-18.02076 -16.874712 1.9853878 33
-13.535773 -16.643452 1.9973415 8
-24.421247 -16.174839 1.9189551 11
-10.543927 -16.167471 1.9154365 54
-10.436986 -16.158199 1.9411834 51
-10.492947 -16.051678 1.909467 62
-9.9667702 -15.929979 1.9566888 40
-9.8137989 -15.906935 1.9716837 43
-14.300575 -15.837227 1.9844009 4
-9.8805714 -15.867619 1.9139798 40
-9.0374222 -15.876968 1.9535754 22
-8.8894644 -15.832982 1.9850091 19
-2.3244781 -15.634996 1.9882135 33
-2.1874332 -15.610546 1.9307214 33
-1.253624 -15.616938 1.9386864 7
-1.2914085 -15.532803 1.9201944 13.5
-4.5918808 -15.428448 1.9182422 38
-4.0758562 -15.41321 1.9593507 21
-1.2510574 -15.440837 1.9036118 4
-4.5060062 -15.30924 1.9829307 35
-4.1731234 -15.314245 1.9227701 14
-14.463946 -15.212093 1.9327152 13
-2.2156982 -15.210379 1.9109517 23
4.8286328 -15.237714 1.9099257 4
-14.490437 -15.149183 1.9457805 7.5
-14.520296 -15.062286 1.9472041 9.5
-1.4036646 -15.001278 1.9059849 10
0.95619297 -15.058184 1.9790944 23
1.6190495 -15.001534 1.9686037 3
4.8304119 -15.072276 1.9212132 2
-2.2774773 -14.978952 1.9789642 37
-2.195303 -14.940882 1.936377 12
1.589025 -14.959193 1.9017262 18
-2.3796368 -14.875452 1.9515572 39
-2.2628264 -14.847195 1.9263446 2.5
-2.1961362 -14.836038 1.9804844 50
-1.4575944 -14.818871 1.9821866 11.5
4.7915983 -14.85792 1.9125856 2
-14.523973 -14.769684 1.9572223 2
-2.2281098 -14.792637 1.9746447 31
-2.1896057 -14.799498 1.9602174 45
-1.7596979 -14.74708 1.9017317 48
-1.4259499 -14.727648 1.9425714 26.5
-1.3664608 -14.791576 1.9810179 26
4.8374662 -14.784794 1.9105835 2
-1.4769266 -14.665092 1.9987046 53
0.90925097 -14.51597 1.9529588 34
1.3746558 -14.545122 1.993392 65
1.2392921 -14.485137 1.9190502 49
1.4197227 -14.450643 1.970842 50.333332
4.8261032 -14.413768 1.9179493 2
-14.604055 -14.177488 1.9325496 7
9.1687202 -14.10427 1.9031607 4
9.2068748 -14.062186 1.9086148 50
9.2638474 -13.988688 1.901961 3
9.1893425 -13.810318 1.9806206 2
9.255023 -13.884274 1.9355043 15
-14.72662 -13.714371 1.9017755 2
9.2094135 -13.501814 1.9699641 16
14.448484 -13.540919 1.9658667 41
9.2347431 -13.459381 1.9575133 24.75
9.3385592 -13.445023 1.9309403 61
9.4381456 -13.466726 1.9943857 48
9.6867485 -13.429025 1.9201645 7
9.7634182 -13.454672 1.9096422 36
9.8383913 -13.449371 1.9622641 16
14.216709 -13.4416 1.9066834 60
9.7122879 -13.368551 1.9144034 8
9.8209381 -13.330096 1.9505869 20
14.215269 -13.184718 1.9404405 12
-14.6693 -13.040632 1.9089249 4
14.107204 -12.86001 1.90552 66
14.305683 -12.673132 1.9516844 21
-14.816023 -12.510349 1.9322164 6
-14.857845 -12.494958 1.936211 2
-14.746861 -12.474274 1.9344288 13
-14.847048 -12.23179 1.9450389 10
-14.711334 -12.1627 1.9411199 3
-14.897321 -11.701036 1.9465063 2
-14.786064 -11.709908 1.9628111 4
4.3228655 -11.303857 1.9146794 3
4.3264084 -11.228546 1.992153 3
4.285285 -10.873283 1.9623091 2
-14.841926 -10.738451 1.9219353 3
4.2883768 -10.775284 1.9850399 6
-14.913264 -10.271813 1.9365487 12
-14.966598 -10.185429 1.9858559 2
4.1746426 -10.091045 1.9490274 4
-25.327547 -9.7433233 1.9057643 23
-19.880581 -9.483304 1.9153697 2
-19.021616 -9.4404364 1.9552854 32.333332
-25.388317 -9.3302164 1.9694552 18
-15.171983 -8.8386364 1.9666815 10
-15.070925 -8.8154812 1.9444326 2
13.560674 -8.614603 1.9420146 28.5
-19.939369 -8.5351448 1.9700594 25
-19.766954 -8.5468197 1.9410322 8
-19.188692 -8.5227613 1.9237963 8
13.544025 -8.5040197 1.916863 26
-20.052313 -8.4822664 1.9440336 36
-19.869049 -8.488121 1.9568303 61
-19.335609 -8.4310369 1.920718 53
-19.15127 -8.447937 1.9594231 34
-19.434261 -8.387723 1.9519383 60
-19.254522 -8.3938875 1.9706317 59
-11.452484 -8.2214413 1.9435148 16.333334
-10.843529 -8.2511082 1.9287213 4
-10.815711 -8.1470356 1.9574531 58
-10.795622 -8.1380863 1.9716166 54
13.535405 -8.1219521 1.9862303 35
-10.85145 -8.0503111 1.9880786 33
13.488364 -8.069932 1.9526535 33
14.132366 -8.0015888 1.9178954 36
14.092178 -7.9760237 1.9157549 38
16.7106 -7.8180494 1.9755043 44
-11.502404 -7.6696901 1.9784034 39
-11.459919 -7.6511822 1.9300146 7.5
-11.165956 -7.6155367 1.9938452 15
-10.943628 -7.6113167 1.9150881 9
16.682358 -7.6448569 1.9098352 32
-11.507133 -7.569335 1.9906533 18
-10.941307 -7.5478559 1.9477592 34.666668
-25.602053 -7.4635668 1.902748 29
-10.975897 -7.4903488 1.9824336 3
-3.1730137 -7.4290147 1.9090312 38
-3.2208214 -7.3670712 1.9424675 48
-3.194293 -7.3760648 1.9826766 35
-2.3492303 -7.3279924 1.9392207 4.5
-2.341157 -7.2742782 1.9563497 29.5
-2.3864944 -7.1110191 1.9789706 37
22.589314 -7.1073089 1.9849119 43
-15.410775 -7.0686512 1.9088604 12
-15.354756 -7.0636849 1.9248312 4
22.529873 -7.0881486 1.9231464 49
0.43046379 -6.8094168 1.9261862 17
22.760477 -6.8244891 1.9460388 46.5
-0.10346222 -6.7008405 1.9403913 46
-0.10493517 -6.6618171 1.9753001 44.5
0.48532867 -6.6637192 1.9489528 15
0.51779461 -6.6468501 1.9991645 38
-3.2825918 -6.5138183 1.9551643 31
-2.541707 -6.522748 1.9577117 31
0.4484911 -6.5554338 1.959641 39.5
-3.3429699 -6.4140205 1.9432864 5
-3.281718 -6.4091134 1.9582611 15.666667
-3.0673218 -6.4312315 1.9782298 32
3.6594791 -6.4262199 1.9674034 16.5
-3.3010759 -6.3994951 1.9682139 40
-3.2895298 -6.3831134 1.9658253 21.5
-3.0034084 -6.3020077 1.9615881 12
-2.8697338 -6.3711381 1.9810582 30
-2.6063981 -6.3511639 1.9588649 21
-0.22128773 -6.2454805 1.9114689 8
-0.14696109 -6.2298737 1.932356 28
0.0016508102 -6.2312574 1.9656391 27
0.18289661 -6.2050285 1.9163047 24
0.34828186 -6.2126737 1.9673193 32
-0.15897465 -6.1871681 1.9456644 29
0.23034763 -6.1168728 1.914036 30
0.33189726 -6.1265602 1.955768 22.5
0.4243145 -6.1310482 1.9958227 31
-15.476772 -5.7059131 1.9546515 26
8.2124081 -5.7389526 1.9518847 3
-15.622353 -5.64991 1.9479302 13
-15.584052 -5.632947 1.9500798 2
8.2191849 -5.6776814 1.9489065 37.333332
8.097805 -5.5081987 1.9010434 11
7.9014053 -5.4622536 1.9321786 2
15.722815 -5.4238286 1.972065 2
16.222027 -5.3825936 1.9963436 14
8.146946 -5.1125622 1.9484106 17
8.2391253 -5.1142178 1.9612677 55
-25.850361 -5.0281572 1.9597576 3
8.1804008 -5.0093541 1.9341786 12
8.71311 -5.0155993 1.9403787 24.5
13.165031 -5.0439663 1.9478555 11.75
-25.866819 -4.937211 1.9647641 5
8.0200243 -4.9719558 1.9579712 26.666666
8.7007694 -4.980546 1.9565398 32
-25.727293 -4.8531408 1.9975196 4
3.5633507 -4.8453951 1.9334408 3
3.4752383 -4.7797556 1.9074035 7
16.346962 -4.6313305 1.9489298 30.4
16.336683 -4.5592899 1.9523705 16
9.1106815 -4.4379964 1.9632487 15
13.078133 -4.4778509 1.9494892 43
13.120137 -4.4729609 1.9543678 25.333334
13.634863 -4.4191198 1.9952072 53.5
16.287584 -4.4202418 1.9371343 14
9.099575 -4.3683209 1.9856308 15
13.669473 -4.3708305 1.9294477 37
-15.695843 -4.2184768 1.9250616 27
9.1139927 -4.256988 1.9065748 6
-15.778699 -4.1537504 1.971836 7
-15.686506 -4.1960449 1.9153435 35
-7.2602415 -4.1607127 1.9209023 116
9.0929899 -4.1736851 1.9687718 20
11.134624 -4.105175 1.9653393 4
16.315351 -4.1250205 1.9836562 52
16.933514 -4.1621723 1.9853804 26
16.269451 -4.0598855 1.9624791 24.25
16.350548 -4.0603971 1.9022847 48
16.402906 -4.0079756 1.9094571 18
16.796173 -4.0042715 1.9157085 51
22.351688 -4.0729132 1.9520062 22
22.415079 -4.0838752 1.9039451 42
-22.454796 -3.9997826 1.9930383 16
16.777113 -3.9780302 1.9932786 15
16.850626 -3.9600487 1.9466178 17.6
22.178778 -3.9020178 1.9956322 42
22.165485 -3.846019 1.9396949 35.5
16.202759 -3.761528 1.9639418 3
22.170532 -3.7258489 1.9401978 33
10.527201 -3.5538449 1.9397614 17
22.110123 -3.4496851 1.9732262 10
3.2946353 -3.3412967 1.942214 3
19.084915 -3.3926525 1.9309897 3
22.064644 -3.2676854 1.9634854 35
22.26424 -3.1951742 1.9144555 45
-23.537033 -2.5857778 1.9593002 3
8.968894 -2.4763908 1.9639369 8
-9.2284737 -2.3822179 1.9038466 4
-8.0212536 -2.2301099 1.9077641 13
8.9575062 -2.1922033 1.957883 3
13.994513 -2.0429983 1.9893986 4
-26.264151 -1.8997669 1.9141687 33
-1.5316916 -1.8876833 1.9466707 18.333334
3.0807953 -1.7119393 1.9721627 13
3.1004386 -1.7643667 1.9043345 14
-28.725143 -1.4007092 1.9297998 36
-28.848145 -1.3714848 1.9421017 39
-28.309586 -1.3267345 1.9048674 40
-28.297821 -1.3102646 1.9032276 28
-26.43438 -1.3469876 1.9188827 26
-1.6034517 -1.2742848 1.9649035 2
-1.5870652 -1.2153418 1.9046713 36
1.1371393 -1.2013397 1.9297668 5
2.8984632 -1.2980335 1.9525247 15
10.279431 -1.2217178 1.9428221 4
-26.514675 -1.1369781 1.9101954 48
-26.450827 -1.1256973 1.957478 27.666666
-20.939346 -1.1118095 1.9279569 34
-20.874744 -1.1239482 1.9403319 15
-20.358467 -1.1050798 1.9251202 8
1.1214647 -1.1083984 1.9516488 3
-20.947718 -1.010118 1.9651587 14
-20.631489 -1.0798876 1.9044698 32
-20.332972 -1.0430243 1.9619278 13
-20.154617 -1.0193039 1.9362965 25.25
-21.019573 -0.98020744 1.9419664 2
-20.160254 -0.99224997 1.9886954 51
2.2743549 -0.90814018 1.9069599 2
2.6934757 -0.95295334 1.9046233 2
-23.754211 -0.84382904 1.9205199 8
5.7087617 -0.58257341 1.9105815 2
-20.759054 -0.31703186 1.9016533 57
-20.201355 -0.36834574 1.9279983 56
-21.029209 -0.23708057 1.9088212 60
-20.435556 -0.24817276 1.9612149 60
-20.224674 -0.22245026 1.9384576 9.5
10.769044 -0.27218437 1.981491 7
-20.254917 -0.12200975 1.9255105 32
-12.537112 0.076338768 1.9345537 5
-12.482994 0.045140743 1.9700828 9
-12.247407 0.087022066 1.9208881 38
9.9609575 0.044405937 1.9262819 12
10.069609 0.085460663 1.919458 36
-12.024348 0.16089106 1.9616616 18
-11.95723 0.16966021 1.9357684 41.5
10.24994 0.10033417 1.9799637 15
10.381708 0.10938883 1.901274 22
-12.539267 0.22315598 1.9330955 58
11.775593 0.25763416 1.9592174 7
15.46768 0.34871197 1.9470053 7
14.776114 0.48320532 1.9877042 15
-12.64981 0.64912891 1.9122514 57
14.696375 0.66085482 1.9704286 36
-12.394876 0.70763111 1.9318633 14
-12.002006 0.75042439 1.9686527 10
-11.998381 0.75351882 1.9225976 2
16.297499 0.74894714 1.9567491 20
-4.2837858 0.97587085 1.9791465 11
12.079241 0.91251636 1.9700575 3
-24.043707 1.0372279 1.9212962 4
-23.985466 1.0468049 1.9526626 24
-4.3907871 1.1065145 1.9692335 62
-3.6634855 1.1009979 1.9496707 6
-3.5448871 1.1125364 1.9499941 18.5
8.5270939 1.1759202 1.9825822 18
9.8659849 1.1980424 1.9339941 5
18.750948 1.1868184 1.9135087 31
21.708885 1.1766949 1.9474366 12
-3.6481237 1.2703629 1.9951887 5
18.860832 1.2494993 1.9062418 5
21.569395 1.2967014 1.9225949 22
12.702531 1.3407755 1.9755177 14
21.558926 1.347765 1.9853437 15
21.607643 1.3389549 1.9542453 34
-1.2734904 1.5458493 1.9791892 48
-0.72544891 1.5793219 1.921615 25
-0.65178442 1.5634936 1.9309964 20.5
-0.65306306 1.602314 1.9329342 55
-4.4706898 1.7377838 1.9921967 62
-29.087154 1.9990606 1.9079618 2
-3.5916274 1.9427824 1.9721202 2
-0.71790981 1.9622784 1.9965364 16
8.1456757 1.9743695 1.9501944 7
-3.9262352 2.0092144 1.9447529 56
-1.3104591 2.0902891 1.9720947 14
-1.2780323 2.1326599 1.9497579 6
-0.73809445 2.1470859 1.9378268 45
7.3420644 2.157989 1.9840688 5
8.1047421 2.1619601 1.9347464 22
18.921909 2.1566839 1.9670173 10
-0.70548344 2.2060518 1.9648806 5
8.1459742 2.3795724 1.9486047 3
10.97445 2.4867086 1.9634572 5
11.586622 2.4584785 1.9927351 5
-24.221489 2.5318582 1.94592 29
-24.161308 2.5233853 1.9527807 16
6.9844947 2.5709639 1.9590454 13
7.0135612 2.5623512 1.9636886 12
9.9756622 2.5800066 1.9537889 8
13.845446 2.5989523 1.9617277 2
7.0230036 2.6427948 1.9473279 45
11.570481 2.6815181 1.9802816 7
12.339597 2.6829195 1.9005749 3
10.125885 2.7573643 1.924866 2
13.792513 2.744231 1.9822632 14
13.903025 2.7658176 1.9046227 4
-21.453382 2.9898751 1.9847554 6
13.837892 2.924099 1.9707677 5
14.355442 2.9594154 1.9321679 7
15.863899 2.9958174 1.9752481 9
-21.510101 3.0498261 1.9610217 20
-21.443705 3.0622499 1.9568049 23.333334
-21.230083 3.0924227 1.944908 30
13.716187 3.0979307 1.9868379 6
-21.506462 3.1195514 1.9691955 30.666666
-20.72678 3.1823416 1.9217045 51
15.79998 3.1953335 1.9759297 7
6.8411608 3.3627601 1.9778173 37.75
7.1156788 3.3470612 1.9090627 53
16.662573 3.3341208 1.9434215 4
19.109447 3.4018564 1.9466773 7
15.169529 3.6903491 1.9418998 60
15.243618 3.6992714 1.9185414 61
15.315839 3.6302769 1.9169012 21
15.702116 3.6925917 1.999215 18
16.594074 3.7847738 1.9732522 14
19.105927 3.7573533 1.9705362 4
-21.593464 3.8428028 1.929902 25.5
-20.775282 3.8261518 1.9518687 32
21.013899 3.8492045 1.9863621 12
21.18906 3.8671694 1.9619381 16
21.216812 3.8796263 1.9300524 16
-29.057804 3.9243217 1.9725643 10
-20.811378 3.9231701 1.9559627 8.5
-20.998062 4.0075331 1.9851961 63
-20.849783 4.0469627 1.9477236 66
-13.334098 4.0824895 1.9322133 52
-13.264162 4.0960679 1.9815421 32
15.120045 4.0811248 1.9515631 59
-29.121883 4.1754298 1.963866 6
-13.31918 4.1238432 1.9408642 27
-13.259427 4.1487327 1.9312086 39.666668
-12.79952 4.1537399 1.9574201 20
15.19381 4.1566944 1.9665079 26.666666
-12.481438 4.209619 1.9312376 46
-12.332785 4.2303567 1.9631121 13.5
-12.276198 4.2552834 1.9600135 37.333332
9.4529228 4.2051907 1.9637184 13
15.06801 4.2353077 1.9552021 42
15.153496 4.2442803 1.9320337 31
15.647133 4.2533779 1.9982027 70
15.76387 4.2534647 1.9708163 34.5
15.827726 4.2905369 1.9784182 3
15.743759 4.3448367 1.9681076 33
8.0430241 4.4947448 1.9494821 6
20.989433 4.5047026 1.9992347 59
21.034222 4.5139232 1.9551775 38
-13.299315 4.6944218 1.9139966 54
16.34626 4.6132708 1.9089574 12
16.588854 4.6704965 1.947799 2
-12.322958 4.7641773 1.9406558 20.5
11.08891 4.7294512 1.9692965 21
-13.454618 4.8101916 1.9777563 4
-13.363762 4.8424759 1.9878515 36.666668
-12.350893 4.8304758 1.9041039 25
-29.605072 4.9747419 1.9500446 13
-29.150753 4.9436874 1.9336419 9
-13.453039 4.9353147 1.9671173 3
16.267778 4.9933071 1.9663267 2.5
-12.370643 5.0384674 1.9516283 7.6666665
7.9956045 5.0975904 1.9579885 6
11.090069 5.0815411 1.9874278 16
16.465813 5.0937319 1.9702357 13
-4.8423023 5.1948047 1.9413153 33
9.3019714 5.183507 1.9159969 4
14.042406 5.1503959 1.9944637 5
19.773624 5.1002254 1.9980382 2
-4.8572121 5.2343559 1.9697248 26
-4.6165514 5.2059622 1.9211363 34
-4.1572123 5.2860188 1.9138241 39
-29.721741 5.3751273 1.92372 9
-4.0557408 5.3205171 1.9669038 43
7.9064746 5.3657637 1.9782109 3
8.843771 5.3845978 1.9961793 10
16.4006 5.3631153 1.9517177 20
19.811199 5.3630524 1.9637539 2
-29.724773 5.457386 1.975403 4
-29.334686 5.5641074 1.9098378 4
-29.288776 5.5619173 1.9469618 7
-4.111207 5.589035 1.9564989 51
7.5290871 5.5976458 1.9987099 2
9.236208 5.5166397 1.932827 14
-29.773579 5.6878114 1.9003341 7
7.9267311 5.6062493 1.9044667 3
10.246179 5.7377014 1.9839783 16
16.157795 5.7940149 1.9909222 13
16.346977 5.7773595 1.981107 4
16.453506 5.7572069 1.9411461 3
-24.626163 5.8245125 1.9476368 10
7.9068928 5.8887672 1.9240671 6
16.431217 5.8462954 1.9933106 9
-4.9434361 5.9570589 1.9628584 15
-33.330505 6.0192842 1.9976152 27
-29.36467 6.0981722 1.9498802 4
-4.3193378 6.0320592 1.9559313 8
-4.1300621 6.0653315 1.9530231 11.75
7.848774 6.0945725 1.9579022 10
-29.831604 6.1895905 1.9395962 28.666666
-29.655661 6.2865992 1.951665 39
-29.448696 6.2631974 1.9461448 6
7.904027 6.2335396 1.9452147 5
-29.724571 6.3831973 1.9657929 23
-29.688713 6.3633766 1.9255489 36
7.8259192 6.339469 1.9230964 4
16.215021 6.3484864 1.9921833 2
16.249374 6.4764471 1.9332837 5
-33.068314 6.5611653 1.9030831 27
11.369856 6.5652061 1.9109401 2
16.171375 6.5550079 1.9566343 4
17.154484 6.5902805 1.9251912 19
18.001926 6.587656 1.9135919 2
-33.037495 6.6384492 1.9415907 6.6666665
7.7804623 6.6768956 1.9304858 2
-32.142464 6.781148 1.9589771 3
-32.035828 6.7809801 1.9687866 3
9.1500959 6.7589087 1.9078951 4
16.186686 6.7788582 1.9548169 2
16.230873 6.766942 1.9756969 14
-32.228813 6.8568163 1.9402798 5
-32.137676 6.8042259 1.9794053 2
-30.402626 6.8606853 1.9741371 52
9.1399288 6.8260736 1.9763935 10
-32.11142 6.9368896 1.9555333 5
-30.366701 6.9225616 1.9577916 43
-29.712851 6.9421496 1.9541827 15.666667
-29.681141 6.946959 1.9597044 22.5
8.9485512 6.9138336 1.9395167 2
19.528959 6.9081936 1.9431679 26
19.662447 6.9064846 1.9877492 2
-32.211472 7.1753025 1.972351 6
7.5307183 7.1748981 1.959034 11
16.091818 7.1335044 1.9563122 12
-22.02343 7.2957144 1.9616363 33
-21.946072 7.2863798 1.9841154 15
7.7549872 7.2327194 1.9187675 14
-33.150917 7.3148623 1.9290973 8
-21.943531 7.3177023 1.9186802 30
-33.386955 7.4900951 1.990988 34
-33.197254 7.4236383 1.9179142 12
